1.2716 -0.9109 1.3120 -1781 0 0 0
1.2871 -0.9189 1.3123 -1772 0 0 0
1.2979 -0.9466 1.3148 -1744 0 0 0
1.3341 -0.8936 1.3105 -1832 0 0 0
1.3399 -0.9079 1.3118 -1799 0 0 0
1.3454 -0.9214 1.3133 -1794 0 0 0
1.3874 -0.9679 1.3160 -1728 0 0 0
1.3714 -0.9921 1.3170 -1773 0 0 0
1.3906 -0.9989 1.3170 -1743 0 0 0
1.4021 -1.0101 1.3178 -1691 0 0 0
1.4246 -0.9654 1.3165 -1772 0 0 0
1.4436 -0.9726 1.3165 -1774 0 0 0
1.4541 -0.9844 1.3165 -1788 0 0 0
1.4336 -1.0109 1.3178 -1610 0 0 0
1.3686 -0.9434 1.3145 -1772 0 0 0
1.3924 -0.9476 1.3153 -1783 0 0 0
1.3924 -0.8964 1.3110 -1789 0 0 0
1.4166 -0.9179 1.3125 -1813 0 0 0
1.4384 -0.9409 1.3148 -1788 0 0 0
1.4404 -0.9226 1.3130 -1819 0 0 0
1.4756 -0.9389 1.3150 -1811 0 0 0
1.2656 -0.8294 1.3063 -1747 0 0 0
1.2554 -0.8524 1.3078 -1736 0 0 0
1.2506 -0.8714 1.3095 -1720 0 0 0
1.2729 -0.8761 1.3098 -1744 0 0 0
1.3184 -0.8851 1.3100 -1782 0 0 0
1.2966 -0.8461 1.3073 -1740 0 0 0
1.3196 -0.8506 1.3078 -1774 0 0 0
1.3554 -0.8479 1.3078 -1771 0 0 0
1.3079 -0.8736 1.3100 -1724 0 0 0
1.2579 -0.7824 1.3028 -1765 0 0 0
1.2674 -0.7939 1.3035 -1738 0 0 0
1.2669 -0.8109 1.3045 -1739 0 0 0
1.3019 -0.8256 1.3058 -1773 0 0 0
1.3171 -0.7654 1.3020 -1792 0 0 0
1.3166 -0.7831 1.3033 -1796 0 0 0
1.3136 -0.8019 1.3045 -1772 0 0 0
1.3519 -0.7974 1.3045 -1765 0 0 0
1.3454 -0.8184 1.3055 -1765 0 0 0
1.3691 -0.8574 1.3090 -1770 0 0 0
1.3861 -0.8651 1.3095 -1768 0 0 0
1.3886 -0.8811 1.3103 -1789 0 0 0
1.4199 -0.8299 1.3070 -1769 0 0 0
1.4429 -0.8866 1.3150 -1864 0 0 0
1.4696 -0.8904 1.3113 -1833 0 0 0
1.4366 -0.8384 1.3075 -1759 0 0 0
1.4401 -0.8536 1.3085 -1799 0 0 0
1.4471 -0.8666 1.3103 -1784 0 0 0
1.4859 -0.8639 1.3108 -1780 0 0 0
1.3691 -0.8231 1.3060 -1765 0 0 0
1.3644 -0.7736 1.3028 -1775 0 0 0
1.3964 -0.7899 1.3043 -1769 0 0 0
1.4029 -0.7689 1.3030 -1800 0 0 0
1.4191 -0.7951 1.3043 -1762 0 0 0
1.4069 -0.8191 1.3063 -1743 0 0 0
1.4589 -0.7906 1.3045 -1801 0 0 0
1.4714 -0.8011 1.3053 -1752 0 0 0
1.5001 -1.0121 1.3180 -1635 0 0 0
1.5276 -1.0156 1.3148 -1638 0 0 0
1.5096 -0.9564 1.3163 -1757 0 0 0
1.4881 -0.9844 1.3173 -1695 0 0 0
1.4966 -0.9964 1.3175 -1659 0 0 0
1.5434 -0.9569 1.3163 -1762 0 0 0
1.5669 -1.0141 1.3155 -1679 0 0 0
1.5521 -0.9694 1.3168 -1787 0 0 0
1.5574 -0.9839 1.3175 -1757 0 0 0
1.5971 -0.9814 1.3178 -1742 0 0 0
1.4976 -0.9446 1.3155 -1782 0 0 0
1.4934 -0.8951 1.3118 -1821 0 0 0
1.4896 -0.9146 1.3130 -1820 0 0 0
1.5286 -0.9116 1.3135 -1804 0 0 0
1.5506 -0.9179 1.3135 -1784 0 0 0
1.5626 -0.9289 1.3145 -1795 0 0 0
1.6079 -0.9411 1.3155 -1776 0 0 0
1.5979 -0.9286 1.3148 -1804 0 0 0
1.6149 -0.9559 1.3168 -1767 0 0 0
1.6359 -0.9801 1.3178 -1738 0 0 0
1.6329 -0.9989 1.3185 -1670 0 0 0
1.6614 -1.0024 1.3178 -1625 0 0 0
1.6926 -0.9709 1.3175 -1702 0 0 0
1.7084 -0.9979 1.3185 -1632 0 0 0
1.7264 -0.9724 1.3180 -1663 0 0 0
1.6171 -0.9019 1.3125 -1820 0 0 0
1.6561 -0.9526 1.3168 -1748 0 0 0
1.6536 -0.9011 1.3130 -1826 0 0 0
1.6659 -0.9126 1.3143 -1774 0 0 0
1.6726 -0.9266 1.3155 -1804 0 0 0
1.6956 -0.9514 1.3170 -1660 0 0 0
1.7124 -0.9246 1.3148 -1822 0 0 0
1.7299 -0.8989 1.3133 -1835 0 0 0
1.5436 -0.8861 1.3115 -1820 0 0 0
1.4984 -0.8399 1.3080 -1811 0 0 0
1.5371 -0.8371 1.3083 -1767 0 0 0
1.5339 -0.8564 1.3128 -1865 0 0 0
1.5486 -0.8659 1.3105 -1816 0 0 0
1.5809 -0.8846 1.3113 -1843 0 0 0
1.6049 -0.8901 1.3118 -1825 0 0 0
1.6056 -0.8364 1.3093 -1784 0 0 0
1.6009 -0.8566 1.3105 -1823 0 0 0
1.4934 -0.8249 1.3070 -1781 0 0 0
1.4906 -0.8086 1.3060 -1759 0 0 0
1.5276 -0.7709 1.3040 -1799 0 0 0
1.5459 -0.7789 1.3048 -1777 0 0 0
1.5479 -0.7954 1.3053 -1779 0 0 0
1.5549 -0.8094 1.3068 -1803 0 0 0
1.6126 -0.7786 1.3055 -1809 0 0 0
1.5929 -0.8066 1.3065 -1801 0 0 0
1.6416 -0.8534 1.3108 -1833 0 0 0
1.6656 -0.8591 1.3113 -1811 0 0 0
1.7214 -0.8849 1.3118 -1711 0 0 0
1.6791 -0.8701 1.3123 -1758 0 0 0
1.7264 -0.8284 1.3098 -1819 0 0 0
1.7394 -0.8399 1.3108 -1811 0 0 0
1.7169 -0.8691 1.3125 -1793 0 0 0
1.6544 -0.7749 1.3058 -1782 0 0 0
1.6641 -0.8054 1.3073 -1790 0 0 0
1.6589 -0.8266 1.3090 -1782 0 0 0
1.7264 -0.7734 1.3063 -1801 0 0 0
1.7194 -0.7954 1.3073 -1817 0 0 0
1.7006 -0.8231 1.3090 -1797 0 0 0
1.7649 -1.2329 1.3298 -1637 0 0 0
1.7621 -1.2506 1.3303 -1680 0 0 0
1.7961 -1.2539 1.3313 -1678 0 0 0
1.8276 -1.2244 1.3308 -1673 0 0 0
1.8274 -1.2586 1.3318 -1642 0 0 0
1.8614 -1.2281 1.3315 -1698 0 0 0
1.8629 -1.2616 1.3325 -1644 0 0 0
1.7466 -1.2064 1.3280 -1693 0 0 0
1.7676 -1.1801 1.3265 -1691 0 0 0
1.7906 -1.2051 1.3293 -1688 0 0 0
1.7804 -1.1581 1.3250 -1685 0 0 0
1.8284 -1.2064 1.3295 -1650 0 0 0
1.8291 -1.1549 1.3255 -1728 0 0 0
1.8086 -1.1801 1.3275 -1635 0 0 0
1.8516 -1.1796 1.3280 -1719 0 0 0
1.9269 -1.2716 1.3335 -1649 0 0 0
1.8941 -1.2326 1.3320 -1691 0 0 0
1.9279 -1.2361 1.3320 -1669 0 0 0
1.9079 -1.2611 1.3325 -1617 0 0 0
1.9929 -1.2106 1.3308 -1709 0 0 0
1.9746 -1.2354 1.3320 -1692 0 0 0
1.9929 -1.2456 1.3325 -1739 0 0 0
1.8699 -1.1551 1.3260 -1761 0 0 0
1.8916 -1.1804 1.3285 -1722 0 0 0
1.8916 -1.1976 1.3300 -1690 0 0 0
1.9244 -1.2024 1.3303 -1687 0 0 0
1.9121 -1.1551 1.3260 -1722 0 0 0
1.9574 -1.2069 1.3305 -1691 0 0 0
1.9524 -1.1559 1.3265 -1766 0 0 0
1.9519 -1.1736 1.3278 -1709 0 0 0
1.9869 -1.1771 1.3283 -1738 0 0 0
1.7779 -1.1414 1.3235 -1699 0 0 0
1.7539 -1.1001 1.3198 -1709 0 0 0
1.7684 -1.1109 1.3208 -1653 0 0 0
1.7484 -1.1366 1.3225 -1692 0 0 0
1.8274 -1.0851 1.3188 -1645 0 0 0
1.8091 -1.1104 1.3213 -1707 0 0 0
1.8386 -1.1149 1.3220 -1731 0 0 0
1.8409 -1.1319 1.3238 -1740 0 0 0
1.7434 -1.0351 1.3160 -1662 0 0 0
1.7691 -1.0579 1.3175 -1657 0 0 0
1.7881 -1.0321 1.3158 -1662 0 0 0
1.7794 -1.0709 1.3178 -1697 0 0 0
1.8301 -1.0306 1.3158 -1667 0 0 0
1.8136 -1.0729 1.3183 -1688 0 0 0
1.8411 -1.0436 1.3163 -1684 0 0 0
1.8699 -1.0844 1.3195 -1661 0 0 0
1.8999 -1.0891 1.3200 -1673 0 0 0
1.9009 -1.1066 1.3215 -1688 0 0 0
1.8906 -1.1284 1.3238 -1717 0 0 0
1.9304 -1.1291 1.3238 -1731 0 0 0
1.9534 -1.1021 1.3220 -1738 0 0 0
1.9739 -1.1291 1.3238 -1713 0 0 0
1.8786 -1.0444 1.3173 -1680 0 0 0
1.8934 -1.0556 1.3180 -1652 0 0 0
1.9679 -1.0779 1.3205 -1704 0 0 0
1.9651 -1.0246 1.3183 -1631 0 0 0
1.9384 -1.0539 1.3190 -1693 0 0 0
1.9696 -1.0581 1.3198 -1690 0 0 0
2.0256 -1.2684 1.3335 -1692 0 0 0
2.0086 -1.2571 1.3330 -1708 0 0 0
2.0374 -1.2109 1.3298 -1658 0 0 0
2.0566 -1.2214 1.3308 -1688 0 0 0
2.0739 -1.2321 1.3315 -1707 0 0 0
2.0919 -1.2429 1.3323 -1724 0 0 0
2.0919 -1.2609 1.3333 -1761 0 0 0
2.0141 -1.1486 1.3255 -1714 0 0 0
2.0191 -1.1819 1.3283 -1705 0 0 0
2.0469 -1.1534 1.3253 -1706 0 0 0
2.0539 -1.1859 1.3280 -1681 0 0 0
2.0819 -1.1574 1.3258 -1711 0 0 0
2.1191 -1.1609 1.3260 -1689 0 0 0
2.1024 -1.1849 1.3278 -1707 0 0 0
2.1204 -1.1961 1.3283 -1708 0 0 0
2.1259 -1.2666 1.3333 -1692 0 0 0
2.1744 -1.2664 1.3328 -1684 0 0 0
2.1564 -1.2189 1.3298 -1687 0 0 0
2.1569 -1.2366 1.3310 -1703 0 0 0
2.2154 -1.2694 1.3328 -1707 0 0 0
2.1921 -1.2414 1.3313 -1695 0 0 0
2.2264 -1.2106 1.3293 -1704 0 0 0
2.2459 -1.2399 1.3315 -1722 0 0 0
2.1391 -1.2069 1.3293 -1678 0 0 0
2.1709 -1.1586 1.3263 -1692 0 0 0
2.1904 -1.1696 1.3270 -1674 0 0 0
2.2086 -1.1796 1.3278 -1671 0 0 0
2.2266 -1.1916 1.3285 -1680 0 0 0
1.9951 -1.1026 1.3223 -1720 0 0 0
2.0144 -1.1299 1.3240 -1734 0 0 0
2.0389 -1.1021 1.3220 -1706 0 0 0
2.0811 -1.1026 1.3225 -1738 0 0 0
2.0799 -1.1211 1.3235 -1700 0 0 0
2.1154 -1.1251 1.3240 -1696 0 0 0
2.0079 -1.0239 1.3185 -1600 0 0 0
2.0201 -1.0736 1.3205 -1730 0 0 0
2.0409 -1.0281 1.3193 -1607 0 0 0
2.0374 -1.0479 1.3200 -1713 0 0 0
2.0929 -1.0429 1.3205 -1638 0 0 0
2.0644 -1.0731 1.3215 -1719 0 0 0
2.1139 -1.0704 1.3223 -1714 0 0 0
2.1536 -1.0914 1.3233 -1750 0 0 0
2.1511 -1.1291 1.3243 -1735 0 0 0
2.1894 -1.0959 1.3235 -1711 0 0 0
2.1911 -1.1319 1.3253 -1718 0 0 0
2.2266 -1.0994 1.3243 -1723 0 0 0
2.2441 -1.1291 1.3255 -1756 0 0 0
2.1374 -1.0429 1.3213 -1626 0 0 0
2.1551 -1.0716 1.3225 -1694 0 0 0
2.1871 -1.0409 1.3218 -1697 0 0 0
2.2299 -1.0414 1.3220 -1695 0 0 0
2.2284 -1.0604 1.3230 -1719 0 0 0
1.7734 -0.9676 1.3183 -1808 0 0 0
1.7586 -0.9919 1.3190 -1577 0 0 0
1.7669 -1.0059 1.3170 -1680 0 0 0
1.8229 -0.9626 1.3183 -1664 0 0 0
1.8194 -0.9996 1.3185 -1650 0 0 0
1.8411 -0.9719 1.3185 -1715 0 0 0
1.7534 -0.9411 1.3165 -1710 0 0 0
1.7736 -0.8951 1.3133 -1747 0 0 0
1.7554 -0.9224 1.3153 -1807 0 0 0
1.7879 -0.9426 1.3168 -1716 0 0 0
1.8161 -0.8931 1.3135 -1678 0 0 0
1.8154 -0.9116 1.3150 -1842 0 0 0
1.8359 -0.9381 1.3168 -1716 0 0 0
1.8516 -0.9124 1.3155 -1815 0 0 0
1.8909 -0.9674 1.3190 -1801 0 0 0
1.8691 -0.9949 1.3190 -1568 0 0 0
1.9139 -0.9924 1.3195 -1701 0 0 0
1.9174 -1.0091 1.3178 -1611 0 0 0
1.9524 -1.0116 1.3180 -1631 0 0 0
1.9414 -0.9624 1.3195 -1810 0 0 0
1.9829 -0.9616 1.3190 -1763 0 0 0
1.8874 -0.9316 1.3170 -1822 0 0 0
1.9056 -0.9416 1.3173 -1824 0 0 0
1.9004 -0.9076 1.3155 -1843 0 0 0
1.9559 -0.9371 1.3175 -1771 0 0 0
1.9516 -0.9021 1.3153 -1822 0 0 0
1.9731 -0.9106 1.3160 -1781 0 0 0
1.7779 -0.8386 1.3110 -1739 0 0 0
1.7909 -0.8504 1.3123 -1842 0 0 0
1.7969 -0.8654 1.3133 -1790 0 0 0
1.8591 -0.8354 1.3115 -1810 0 0 0
1.8436 -0.8606 1.3135 -1840 0 0 0
1.7624 -0.7914 1.3073 -1845 0 0 0
1.7874 -0.7969 1.3078 -1824 0 0 0
1.8019 -0.8081 1.3090 -1784 0 0 0
1.8404 -0.8071 1.3093 -1807 0 0 0
1.8524 -0.8196 1.3100 -1818 0 0 0
1.9061 -0.8306 1.3115 -1806 0 0 0
1.8864 -0.8591 1.3135 -1860 0 0 0
1.8804 -0.8801 1.3135 -1812 0 0 0
1.9169 -0.8809 1.3143 -1821 0 0 0
1.9499 -0.8286 1.3118 -1783 0 0 0
1.9514 -0.8466 1.3135 -1803 0 0 0
1.9686 -0.8749 1.3145 -1756 0 0 0
1.9879 -0.8476 1.3140 -1785 0 0 0
1.8689 -0.7751 1.3078 -1809 0 0 0
1.9089 -0.7736 1.3083 -1806 0 0 0
1.9184 -0.7874 1.3085 -1816 0 0 0
1.9234 -0.8031 1.3098 -1817 0 0 0
1.9921 -0.7699 1.3085 -1799 0 0 0
1.9729 -0.7976 1.3100 -1796 0 0 0
2.0004 -0.9729 1.3205 -1830 0 0 0
2.0346 -0.9754 1.3205 -1838 0 0 0
2.0486 -0.9871 1.3208 -1707 0 0 0
2.1129 -1.0156 1.3203 -1596 0 0 0
2.0919 -0.9866 1.3213 -1710 0 0 0
2.1191 -0.9569 1.3200 -1770 0 0 0
2.0061 -0.9324 1.3175 -1839 0 0 0
2.0216 -0.9071 1.3160 -1724 0 0 0
2.0509 -0.9306 1.3178 -1847 0 0 0
2.0669 -0.9424 1.3188 -1782 0 0 0
2.0729 -0.9024 1.3160 -1730 0 0 0
2.1014 -0.9449 1.3190 -1778 0 0 0
2.1191 -0.8999 1.3163 -1815 0 0 0
2.1246 -0.9916 1.3218 -1696 0 0 0
2.1624 -0.9564 1.3200 -1720 0 0 0
2.1764 -1.0071 1.3225 -1666 0 0 0
2.1964 -0.9609 1.3208 -1714 0 0 0
2.1954 -0.9804 1.3220 -1776 0 0 0
2.2224 -1.0061 1.3235 -1680 0 0 0
2.1349 -0.9121 1.3173 -1784 0 0 0
2.1726 -0.9141 1.3178 -1729 0 0 0
2.1911 -0.9246 1.3190 -1750 0 0 0
2.2344 -0.9246 1.3188 -1805 0 0 0
2.0244 -0.8676 1.3155 -1807 0 0 0
2.0401 -0.8416 1.3140 -1823 0 0 0
2.0416 -0.8786 1.3148 -1813 0 0 0
2.0904 -0.8371 1.3135 -1836 0 0 0
2.0919 -0.8739 1.3153 -1795 0 0 0
2.1144 -0.8451 1.3145 -1809 0 0 0
2.0166 -0.7959 1.3103 -1788 0 0 0
2.0166 -0.8146 1.3115 -1789 0 0 0
2.0564 -0.8146 1.3125 -1809 0 0 0
2.0859 -0.7819 1.3105 -1762 0 0 0
2.1049 -0.8106 1.3118 -1757 0 0 0
2.1486 -0.8671 1.3163 -1779 0 0 0
2.1669 -0.8401 1.3150 -1741 0 0 0
2.2181 -0.8359 1.3150 -1744 0 0 0
2.1989 -0.8634 1.3170 -1763 0 0 0
2.2056 -0.8799 1.3163 -1814 0 0 0
2.2471 -0.8806 1.3170 -1819 0 0 0
2.1226 -0.7834 1.3105 -1795 0 0 0
2.1754 -0.7779 1.3108 -1757 0 0 0
2.1606 -0.8039 1.3120 -1750 0 0 0
2.1821 -0.8134 1.3128 -1762 0 0 0
2.2336 -0.7701 1.3110 -1799 0 0 0
2.2354 -0.8081 1.3128 -1757 0 0 0
1.2594 -0.7119 1.3000 -1752 0 0 0
1.2554 -0.7311 1.3008 -1676 0 0 0
1.2821 -0.7329 1.3010 -1732 0 0 0
1.2729 -0.7559 1.3008 -1805 0 0 0
1.3061 -0.7014 1.2995 -1757 0 0 0
1.3329 -0.7034 1.2998 -1727 0 0 0
1.3289 -0.7234 1.3010 -1718 0 0 0
1.3079 -0.7529 1.3013 -1768 0 0 0
1.2346 -0.6569 1.2975 -1765 0 0 0
1.2424 -0.6691 1.2983 -1753 0 0 0
1.2566 -0.6781 1.2985 -1773 0 0 0
1.2606 -0.6931 1.2990 -1792 0 0 0
1.2934 -0.6381 1.2968 -1791 0 0 0
1.3089 -0.6466 1.2978 -1792 0 0 0
1.3149 -0.6609 1.2988 -1782 0 0 0
1.3109 -0.6804 1.2993 -1789 0 0 0
1.3621 -0.7221 1.3008 -1703 0 0 0
1.3674 -0.7536 1.3015 -1828 0 0 0
1.4271 -0.7021 1.3003 -1772 0 0 0
1.4246 -0.7214 1.3013 -1718 0 0 0
1.4756 -0.7104 1.3010 -1788 0 0 0
1.3651 -0.6486 1.2983 -1792 0 0 0
1.3609 -0.6689 1.2988 -1805 0 0 0
1.3891 -0.6701 1.2993 -1781 0 0 0
1.3821 -0.6916 1.2998 -1750 0 0 0
1.4174 -0.6891 1.3000 -1766 0 0 0
1.4426 -0.6391 1.2975 -1844 0 0 0
1.4376 -0.6601 1.2988 -1791 0 0 0
1.4756 -0.6559 1.2995 -1803 0 0 0
1.4851 -0.6684 1.2998 -1822 0 0 0
1.4811 -0.6884 1.3003 -1795 0 0 0
1.3731 -0.7326 1.3020 -1758 0 0 0
1.4194 -0.7416 1.3023 -1796 0 0 0
1.4516 -0.7589 1.3033 -1794 0 0 0
1.4759 -0.7636 1.3038 -1784 0 0 0
1.4599 -0.7361 1.3025 -1765 0 0 0
1.2674 -0.5821 1.2935 -1740 0 0 0
1.2656 -0.6191 1.2958 -1798 0 0 0
1.2756 -0.5954 1.2948 -1813 0 0 0
1.2834 -0.6264 1.2960 -1810 0 0 0
1.3214 -0.5851 1.2955 -1769 0 0 0
1.3389 -0.5924 1.2955 -1783 0 0 0
1.3464 -0.6054 1.2958 -1822 0 0 0
1.2541 -0.5724 1.2925 -1785 0 0 0
1.2341 -0.5314 1.2893 -1835 0 0 0
1.2466 -0.5409 1.2903 -1825 0 0 0
1.2816 -0.5366 1.2905 -1809 0 0 0
1.3049 -0.5401 1.2908 -1794 0 0 0
1.3184 -0.5499 1.2915 -1800 0 0 0
1.3261 -0.5631 1.2928 -1797 0 0 0
1.3599 -0.6154 1.2958 -1801 0 0 0
1.3669 -0.6291 1.2970 -1816 0 0 0
1.4159 -0.6359 1.2978 -1822 0 0 0
1.4184 -0.5804 1.2953 -1817 0 0 0
1.4219 -0.5964 1.2958 -1835 0 0 0
1.4176 -0.6164 1.2963 -1821 0 0 0
1.4756 -0.5821 1.2953 -1782 0 0 0
1.4721 -0.6026 1.2965 -1829 0 0 0
1.3729 -0.5156 1.2903 -1845 0 0 0
1.3796 -0.5301 1.2910 -1850 0 0 0
1.3696 -0.5546 1.2923 -1817 0 0 0
1.3899 -0.5604 1.2930 -1808 0 0 0
1.4009 -0.5721 1.2943 -1812 0 0 0
1.4239 -0.5214 1.2905 -1836 0 0 0
1.4461 -0.5261 1.2915 -1841 0 0 0
1.4549 -0.5386 1.2923 -1805 0 0 0
1.4729 -0.5466 1.2933 -1808 0 0 0
1.4791 -0.5614 1.2945 -1804 0 0 0
1.5181 -0.7039 1.3013 -1809 0 0 0
1.5409 -0.6546 1.2995 -1840 0 0 0
1.5364 -0.6754 1.3008 -1826 0 0 0
1.5794 -0.6691 1.3008 -1792 0 0 0
1.5694 -0.6929 1.3015 -1820 0 0 0
1.5946 -0.6426 1.2993 -1821 0 0 0
1.5166 -0.7586 1.3040 -1792 0 0 0
1.5109 -0.7259 1.3030 -1772 0 0 0
1.5356 -0.7301 1.3033 -1802 0 0 0
1.6084 -0.7629 1.3045 -1826 0 0 0
1.5766 -0.7259 1.3033 -1788 0 0 0
1.5879 -0.7371 1.3035 -1794 0 0 0
1.6066 -0.7454 1.3040 -1813 0 0 0
1.5949 -0.6971 1.3020 -1794 0 0 0
1.6286 -0.6601 1.3003 -1812 0 0 0
1.6561 -0.6634 1.3008 -1775 0 0 0
1.7006 -0.6576 1.3010 -1774 0 0 0
1.6494 -0.7039 1.3025 -1760 0 0 0
1.6684 -0.7121 1.3030 -1785 0 0 0
1.6744 -0.7271 1.3048 -1743 0 0 0
1.6744 -0.7451 1.3045 -1777 0 0 0
1.7386 -0.7114 1.3038 -1750 0 0 0
1.7179 -0.7404 1.3050 -1758 0 0 0
1.6374 -0.6919 1.3020 -1784 0 0 0
1.7351 -0.6944 1.3030 -1752 0 0 0
1.7144 -0.6684 1.3020 -1757 0 0 0
1.7344 -0.6761 1.3025 -1705 0 0 0
1.5424 -0.6354 1.2983 -1853 0 0 0
1.5019 -0.6036 1.2968 -1840 0 0 0
1.4956 -0.6254 1.2978 -1843 0 0 0
1.5319 -0.6229 1.2978 -1832 0 0 0
1.5574 -0.5899 1.2973 -1823 0 0 0
1.5954 -0.5861 1.2975 -1806 0 0 0
1.6044 -0.5991 1.2978 -1837 0 0 0
1.6006 -0.6199 1.2983 -1813 0 0 0
1.5304 -0.5679 1.2950 -1788 0 0 0
1.5296 -0.5124 1.2913 -1791 0 0 0
1.5344 -0.5286 1.2920 -1825 0 0 0
1.5321 -0.5479 1.2933 -1792 0 0 0
1.5601 -0.5691 1.2953 -1779 0 0 0
1.5884 -0.5331 1.2935 -1817 0 0 0
1.5931 -0.5114 1.2923 -1799 0 0 0
1.6134 -0.5561 1.2948 -1788 0 0 0
1.6401 -0.6346 1.2995 -1836 0 0 0
1.6666 -0.5824 1.2980 -1810 0 0 0
1.6569 -0.6066 1.2980 -1760 0 0 0
1.7031 -0.5994 1.2983 -1751 0 0 0
1.6919 -0.6244 1.2993 -1780 0 0 0
1.7186 -0.6284 1.2993 -1795 0 0 0
1.6199 -0.5341 1.2935 -1814 0 0 0
1.6744 -0.5206 1.2933 -1831 0 0 0
1.6539 -0.5514 1.2953 -1770 0 0 0
1.6649 -0.5641 1.2960 -1747 0 0 0
1.7194 -0.5714 1.2968 -1779 0 0 0
1.7161 -0.5159 1.2935 -1805 0 0 0
1.7259 -0.5291 1.2943 -1814 0 0 0
1.7246 -0.5489 1.2953 -1789 0 0 0
1.2566 -0.4609 1.2865 -1770 0 0 0
1.2644 -0.4921 1.2880 -1622 0 0 0
1.2806 -0.4636 1.2870 -1788 0 0 0
1.2864 -0.4966 1.2883 -1675 0 0 0
1.2984 -0.5076 1.2885 -1797 0 0 0
1.3209 -0.4559 1.2873 -1835 0 0 0
1.3341 -0.5024 1.2890 -1805 0 0 0
1.3441 -0.4596 1.2878 -1812 0 0 0
1.3561 -0.4704 1.2883 -1811 0 0 0
1.2364 -0.3996 1.2835 -1807 0 0 0
1.2656 -0.3981 1.2840 -1817 0 0 0
1.2624 -0.4189 1.2850 -1812 0 0 0
1.2614 -0.4381 1.2863 -1744 0 0 0
1.3154 -0.4024 1.2848 -1812 0 0 0
1.3121 -0.4231 1.2855 -1739 0 0 0
1.3364 -0.4261 1.2858 -1790 0 0 0
1.3609 -0.5046 1.2898 -1807 0 0 0
1.3916 -0.4661 1.2883 -1803 0 0 0
1.4201 -0.4669 1.2893 -1807 0 0 0
1.4314 -0.4786 1.2893 -1789 0 0 0
1.4371 -0.4934 1.2898 -1798 0 0 0
1.4844 -0.4829 1.2900 -1803 0 0 0
1.3709 -0.3851 1.2848 -1832 0 0 0
1.3964 -0.3871 1.2853 -1859 0 0 0
1.3779 -0.4179 1.2863 -1816 0 0 0
1.4019 -0.4214 1.2865 -1796 0 0 0
1.4156 -0.4314 1.2875 -1736 0 0 0
1.4526 -0.4264 1.2878 -1790 0 0 0
1.4741 -0.3936 1.2863 -1842 0 0 0
1.4764 -0.4304 1.2873 -1761 0 0 0
1.2611 -0.3251 1.2813 -1722 0 0 0
1.2601 -0.3449 1.2818 -1729 0 0 0
1.2441 -0.3746 1.2830 -1765 0 0 0
1.2934 -0.3599 1.2830 -1777 0 0 0
1.3184 -0.3814 1.2840 -1799 0 0 0
1.3019 -0.3356 1.2823 -1782 0 0 0
1.3236 -0.3584 1.2835 -1820 0 0 0
1.2579 -0.2694 1.2800 -1765 0 0 0
1.2694 -0.2806 1.2800 -1695 0 0 0
1.2614 -0.3054 1.2805 -1719 0 0 0
1.3529 -0.3196 1.2823 -1744 0 0 0
1.3201 -0.2646 1.2800 -1718 0 0 0
1.3209 -0.2829 1.2810 -1705 0 0 0
1.3179 -0.3044 1.2810 -1727 0 0 0
1.3779 -0.3416 1.2833 -1784 0 0 0
1.3739 -0.3631 1.2838 -1823 0 0 0
1.4384 -0.3784 1.2855 -1825 0 0 0
1.4624 -0.3821 1.2860 -1804 0 0 0
1.4324 -0.3244 1.2828 -1806 0 0 0
1.4299 -0.3454 1.2838 -1757 0 0 0
1.4549 -0.3479 1.2843 -1777 0 0 0
1.3816 -0.3194 1.2825 -1683 0 0 0
1.3796 -0.2624 1.2805 -1737 0 0 0
1.3609 -0.2946 1.2815 -1707 0 0 0
1.4146 -0.2776 1.2818 -1717 0 0 0
1.4429 -0.2776 1.2820 -1723 0 0 0
1.4376 -0.3006 1.2823 -1732 0 0 0
1.4984 -0.4554 1.2893 -1844 0 0 0
1.5054 -0.4889 1.2903 -1810 0 0 0
1.5131 -0.5029 1.2908 -1799 0 0 0
1.5706 -0.4489 1.2905 -1833 0 0 0
1.5784 -0.4631 1.2910 -1790 0 0 0
1.5946 -0.4724 1.2910 -1802 0 0 0
1.5971 -0.4896 1.2915 -1792 0 0 0
1.5139 -0.3876 1.2868 -1850 0 0 0
1.4949 -0.4379 1.2895 -1843 0 0 0
1.5494 -0.4426 1.2903 -1860 0 0 0
1.5409 -0.3896 1.2870 -1887 0 0 0
1.5531 -0.4019 1.2875 -1824 0 0 0
1.5591 -0.4166 1.2880 -1780 0 0 0
1.6069 -0.4066 1.2880 -1831 0 0 0
1.6494 -0.4961 1.2920 -1792 0 0 0
1.6634 -0.4501 1.2915 -1806 0 0 0
1.6579 -0.4721 1.2915 -1785 0 0 0
1.6836 -0.4956 1.2925 -1774 0 0 0
1.7171 -0.4564 1.2920 -1784 0 0 0
1.7396 -0.4819 1.2925 -1799 0 0 0
1.6304 -0.4114 1.2885 -1810 0 0 0
1.6371 -0.4261 1.2888 -1797 0 0 0
1.6561 -0.4344 1.2895 -1726 0 0 0
1.7024 -0.3866 1.2883 -1722 0 0 0
1.7221 -0.3946 1.2890 -1720 0 0 0
1.7246 -0.4126 1.2895 -1778 0 0 0
1.7214 -0.4336 1.2903 -1688 0 0 0
1.4984 -0.3391 1.2843 -1770 0 0 0
1.5234 -0.3424 1.2850 -1831 0 0 0
1.5374 -0.3524 1.2855 -1816 0 0 0
1.5739 -0.3486 1.2855 -1740 0 0 0
1.6031 -0.3496 1.2860 -1730 0 0 0
1.5011 -0.2584 1.2820 -1776 0 0 0
1.4966 -0.2811 1.2828 -1687 0 0 0
1.4921 -0.3039 1.2830 -1759 0 0 0
1.5181 -0.3061 1.2838 -1812 0 0 0
1.5564 -0.2616 1.2828 -1774 0 0 0
1.5809 -0.2649 1.2830 -1802 0 0 0
1.5626 -0.2964 1.2840 -1790 0 0 0
1.5866 -0.3006 1.2845 -1787 0 0 0
1.6004 -0.3116 1.2848 -1764 0 0 0
1.6224 -0.3769 1.2870 -1802 0 0 0
1.6149 -0.3619 1.2865 -1762 0 0 0
1.6709 -0.3661 1.2870 -1738 0 0 0
1.6796 -0.3216 1.2858 -1732 0 0 0
1.6871 -0.3364 1.2865 -1730 0 0 0
1.6944 -0.3716 1.2875 -1744 0 0 0
1.7361 -0.3261 1.2863 -1699 0 0 0
1.6491 -0.2601 1.2833 -1799 0 0 0
1.6376 -0.3074 1.2848 -1750 0 0 0
1.6646 -0.2706 1.2840 -1810 0 0 0
1.6674 -0.3084 1.2853 -1769 0 0 0
1.7041 -0.2651 1.2843 -1787 0 0 0
1.7324 -0.2676 1.2845 -1756 0 0 0
1.7969 -0.6426 1.3008 -1812 0 0 0
1.7839 -0.7616 1.3065 -1811 0 0 0
1.7814 -0.7074 1.3035 -1770 0 0 0
1.7949 -0.7374 1.3060 -1791 0 0 0
1.8551 -0.7626 1.3073 -1818 0 0 0
1.8316 -0.7559 1.3070 -1779 0 0 0
1.8584 -0.7049 1.3043 -1806 0 0 0
1.8549 -0.7254 1.3068 -1681 0 0 0
1.8021 -0.6586 1.3025 -1771 0 0 0
1.8051 -0.6754 1.3030 -1788 0 0 0
1.8514 -0.6701 1.3035 -1775 0 0 0
1.8701 -0.6414 1.3015 -1841 0 0 0
1.8976 -0.7224 1.3060 -1763 0 0 0
1.9246 -0.7274 1.3070 -1723 0 0 0
1.9384 -0.7394 1.3073 -1828 0 0 0
1.9774 -0.7386 1.3075 -1824 0 0 0
1.9889 -0.7516 1.3080 -1830 0 0 0
1.8989 -0.6646 1.3038 -1848 0 0 0
1.9289 -0.6679 1.3040 -1877 0 0 0
1.9166 -0.6929 1.3043 -1801 0 0 0
1.9901 -0.6941 1.3050 -1794 0 0 0
1.9644 -0.6874 1.3048 -1759 0 0 0
1.9846 -0.6584 1.3033 -1793 0 0 0
1.7776 -0.6336 1.3003 -1832 0 0 0
1.7579 -0.5879 1.2985 -1812 0 0 0
1.7634 -0.6224 1.2995 -1843 0 0 0
1.7871 -0.5909 1.2990 -1847 0 0 0
1.8329 -0.5846 1.2995 -1799 0 0 0
1.8444 -0.5979 1.2993 -1817 0 0 0
1.8639 -0.6059 1.3000 -1811 0 0 0
1.8656 -0.6241 1.3003 -1828 0 0 0
1.7669 -0.5629 1.2970 -1812 0 0 0
1.7891 -0.5121 1.2943 -1831 0 0 0
1.7821 -0.5356 1.2953 -1836 0 0 0
1.8301 -0.5276 1.2953 -1828 0 0 0
1.8204 -0.5521 1.2968 -1810 0 0 0
1.8499 -0.5556 1.2973 -1816 0 0 0
1.9621 -0.6314 1.3013 -1820 0 0 0
1.9361 -0.5869 1.3000 -1833 0 0 0
1.9376 -0.6049 1.3005 -1820 0 0 0
1.9846 -0.5996 1.3008 -1844 0 0 0
1.8841 -0.5169 1.2950 -1828 0 0 0
1.8951 -0.5499 1.2973 -1847 0 0 0
1.9304 -0.5699 1.2985 -1811 0 0 0
1.9146 -0.5201 1.2955 -1819 0 0 0
1.9099 -0.5614 1.2980 -1831 0 0 0
1.9619 -0.5136 1.2958 -1817 0 0 0
1.9746 -0.5264 1.2963 -1819 0 0 0
1.9174 -0.6354 1.3023 -1796 0 0 0
2.0424 -0.7639 1.3093 -1813 0 0 0
2.0036 -0.7069 1.3055 -1790 0 0 0
2.0459 -0.7049 1.3063 -1791 0 0 0
2.0566 -0.7186 1.3068 -1809 0 0 0
2.0889 -0.7609 1.3098 -1799 0 0 0
2.0654 -0.7334 1.3083 -1829 0 0 0
2.1151 -0.7284 1.3090 -1793 0 0 0
2.0329 -0.6531 1.3038 -1813 0 0 0
2.0619 -0.6581 1.3045 -1794 0 0 0
2.0739 -0.6709 1.3050 -1793 0 0 0
2.1179 -0.6686 1.3055 -1808 0 0 0
2.1571 -0.7471 1.3098 -1814 0 0 0
2.1614 -0.7259 1.3085 -1791 0 0 0
2.2264 -0.7144 1.3080 -1811 0 0 0
2.1984 -0.7469 1.3103 -1791 0 0 0
2.1336 -0.6999 1.3068 -1805 0 0 0
2.1269 -0.6834 1.3058 -1815 0 0 0
2.1811 -0.6961 1.3065 -1783 0 0 0
2.1964 -0.6494 1.3045 -1834 0 0 0
2.2069 -0.6639 1.3055 -1803 0 0 0
2.2334 -0.6906 1.3070 -1784 0 0 0
2.0366 -0.5924 1.3013 -1856 0 0 0
2.0061 -0.5684 1.2993 -1826 0 0 0
1.9976 -0.5339 1.2970 -1834 0 0 0
2.0001 -0.5519 1.2980 -1812 0 0 0
2.0514 -0.5639 1.2993 -1840 0 0 0
2.0671 -0.5161 1.2968 -1825 0 0 0
2.0751 -0.5316 1.2975 -1803 0 0 0
2.1181 -0.5289 1.2975 -1782 0 0 0
2.1034 -0.5566 1.2990 -1804 0 0 0
2.0564 -0.6209 1.3025 -1846 0 0 0
2.1006 -0.6176 1.3023 -1814 0 0 0
2.1726 -0.5814 1.3013 -1703 0 0 0
2.1771 -0.5184 1.2980 -1818 0 0 0
2.1991 -0.5469 1.2993 -1815 0 0 0
2.2436 -0.5444 1.2998 -1807 0 0 0
2.1424 -0.6366 1.3035 -1846 0 0 0
2.1304 -0.5829 1.3020 -1723 0 0 0
2.1319 -0.6216 1.3030 -1833 0 0 0
2.1896 -0.6329 1.3040 -1820 0 0 0
2.2084 -0.5831 1.3025 -1730 0 0 0
2.2164 -0.5994 1.3030 -1806 0 0 0
1.7514 -0.4561 1.2923 -1766 0 0 0
1.7839 -0.4759 1.2933 -1808 0 0 0
1.7916 -0.4906 1.2935 -1796 0 0 0
1.8626 -0.4504 1.2935 -1790 0 0 0
1.8576 -0.4729 1.2938 -1842 0 0 0
1.8479 -0.4979 1.2940 -1783 0 0 0
1.7864 -0.3951 1.2895 -1763 0 0 0
1.7796 -0.4184 1.2903 -1720 0 0 0
1.8109 -0.4406 1.2930 -1757 0 0 0
1.8136 -0.4186 1.2905 -1730 0 0 0
1.8514 -0.4361 1.2928 -1686 0 0 0
1.8979 -0.4891 1.2945 -1813 0 0 0
1.9204 -0.4571 1.2943 -1819 0 0 0
1.9686 -0.4496 1.2945 -1789 0 0 0
1.9569 -0.4759 1.2948 -1821 0 0 0
1.9834 -0.4811 1.2950 -1826 0 0 0
1.8734 -0.4041 1.2905 -1861 0 0 0
1.9149 -0.3996 1.2910 -1886 0 0 0
1.9279 -0.4121 1.2915 -1847 0 0 0
1.9244 -0.4339 1.2930 -1714 0 0 0
1.9904 -0.3966 1.2915 -1835 0 0 0
1.9854 -0.4194 1.2920 -1761 0 0 0
1.7589 -0.3321 1.2868 -1677 0 0 0
1.7674 -0.3464 1.2870 -1684 0 0 0
1.7854 -0.3554 1.2878 -1708 0 0 0
1.7901 -0.3726 1.2885 -1745 0 0 0
1.8474 -0.3784 1.2893 -1763 0 0 0
1.8579 -0.3324 1.2875 -1782 0 0 0
1.8514 -0.3559 1.2883 -1717 0 0 0
1.7451 -0.2799 1.2848 -1731 0 0 0
1.7501 -0.2966 1.2850 -1731 0 0 0
1.8039 -0.2836 1.2855 -1718 0 0 0
1.8504 -0.3164 1.2865 -1765 0 0 0
1.8231 -0.2916 1.2855 -1792 0 0 0
1.8351 -0.3046 1.2863 -1785 0 0 0
1.8806 -0.3791 1.2898 -1813 0 0 0
1.9151 -0.3384 1.2880 -1795 0 0 0
1.9461 -0.3409 1.2883 -1778 0 0 0
1.9411 -0.3636 1.2893 -1776 0 0 0
1.9811 -0.3606 1.2895 -1761 0 0 0
1.9054 -0.2619 1.2855 -1785 0 0 0
1.9181 -0.3159 1.2873 -1815 0 0 0
1.9201 -0.2739 1.2863 -1796 0 0 0
1.9289 -0.2889 1.2868 -1706 0 0 0
1.9886 -0.2739 1.2865 -1788 0 0 0
1.9869 -0.2951 1.2873 -1755 0 0 0
2.0356 -0.4726 1.2955 -1817 0 0 0
2.0466 -0.4866 1.2960 -1847 0 0 0
2.0699 -0.4939 1.2963 -1815 0 0 0
2.0289 -0.4349 1.2943 -1686 0 0 0
2.0344 -0.4121 1.2928 -1861 0 0 0
2.0604 -0.4384 1.2958 -1774 0 0 0
2.0999 -0.3956 1.2928 -1846 0 0 0
2.1076 -0.4324 1.2943 -1737 0 0 0
2.1486 -0.4516 1.2963 -1834 0 0 0
2.1411 -0.4759 1.2965 -1832 0 0 0
2.1504 -0.4909 1.2970 -1792 0 0 0
2.1936 -0.4886 1.2973 -1817 0 0 0
2.2326 -0.4474 1.2975 -1835 0 0 0
2.1236 -0.4446 1.2965 -1832 0 0 0
2.1251 -0.4026 1.2933 -1834 0 0 0
2.1824 -0.3914 1.2930 -1797 0 0 0
2.1896 -0.4084 1.2938 -1768 0 0 0
2.2194 -0.4126 1.2940 -1760 0 0 0
2.2181 -0.4336 1.2963 -1766 0 0 0
2.0124 -0.3221 1.2883 -1799 0 0 0
1.9986 -0.3711 1.2905 -1829 0 0 0
2.0504 -0.3206 1.2885 -1810 0 0 0
2.0591 -0.3779 1.2913 -1824 0 0 0
2.0696 -0.3306 1.2890 -1792 0 0 0
2.0594 -0.3566 1.2900 -1819 0 0 0
2.1041 -0.3721 1.2915 -1796 0 0 0
2.0156 -0.2991 1.2873 -1755 0 0 0
2.0896 -0.2766 1.2880 -1776 0 0 0
2.1306 -0.3369 1.2895 -1782 0 0 0
2.1761 -0.3319 1.2900 -1780 0 0 0
2.1729 -0.3541 1.2910 -1753 0 0 0
2.1954 -0.3629 1.2915 -1763 0 0 0
2.1304 -0.3159 1.2888 -1769 0 0 0
2.1261 -0.2766 1.2880 -1760 0 0 0
2.1459 -0.2859 1.2883 -1768 0 0 0
2.2121 -0.2691 1.2893 -1806 0 0 0
2.2121 -0.2901 1.2893 -1799 0 0 0
0.2431 -0.0734 0.6720 -1509 0 0 0
0.2224 -0.0761 0.7040 -1553 0 0 0
0.2229 -0.0756 0.6905 -1502 0 0 0
0.2241 -0.0739 0.6770 -1553 0 0 0
0.2424 -0.0741 0.6860 -1522 0 0 0
0.2406 -0.0761 0.6990 -1455 0 0 0
0.2206 -0.0776 0.7173 -1629 0 0 0
0.2389 -0.0779 0.7123 -1480 0 0 0
0.2376 -0.0794 0.7260 -1566 0 0 0
0.2609 -0.0751 0.7045 -1511 0 0 0
0.2609 -0.0746 0.6910 -1485 0 0 0
0.2624 -0.0731 0.6773 -1498 0 0 0
0.2791 -0.0756 0.6890 -1569 0 0 0
0.2786 -0.0766 0.7025 -1568 0 0 0
0.2586 -0.0771 0.7178 -1556 0 0 0
0.2781 -0.0769 0.7160 -1546 0 0 0
0.2769 -0.0784 0.7298 -1473 0 0 0
0.2184 -0.0801 0.7310 -1844 0 0 0
0.2176 -0.0811 0.7448 -1804 0 0 0
0.2364 -0.0804 0.7403 -1664 0 0 0
0.2359 -0.0809 0.7540 -1707 0 0 0
0.2341 -0.0829 0.7673 -1630 0 0 0
0.2331 -0.0839 0.7808 -1523 0 0 0
0.2516 -0.0841 0.7855 -1527 0 0 0
0.2534 -0.0826 0.7723 -1559 0 0 0
0.2551 -0.0809 0.7593 -1557 0 0 0
0.2569 -0.0794 0.7315 -1486 0 0 0
0.2564 -0.0794 0.7458 -1569 0 0 0
0.2756 -0.0794 0.7440 -1421 0 0 0
0.2739 -0.0811 0.7578 -1464 0 0 0
0.2729 -0.0821 0.7710 -1375 0 0 0
0.2716 -0.0836 0.7848 -1341 0 0 0
0.3014 -0.0731 0.6698 -1553 0 0 0
0.3201 -0.0734 0.6688 -1556 0 0 0
0.2819 -0.0734 0.6755 -1536 0 0 0
0.2984 -0.0761 0.6973 -1549 0 0 0
0.2996 -0.0746 0.6835 -1546 0 0 0
0.3181 -0.0754 0.6828 -1628 0 0 0
0.3169 -0.0766 0.6965 -1582 0 0 0
0.2966 -0.0781 0.7245 -1600 0 0 0
0.2966 -0.0779 0.7105 -1601 0 0 0
0.3169 -0.0769 0.7100 -1535 0 0 0
0.3151 -0.0786 0.7238 -1662 0 0 0
0.3366 -0.0766 0.7065 -1627 0 0 0
0.3371 -0.0761 0.6930 -1567 0 0 0
0.3384 -0.0749 0.6790 -1508 0 0 0
0.3364 -0.0769 0.7205 -1849 0 0 0
0.2901 -0.0846 0.7928 -1528 0 0 0
0.2909 -0.0836 0.7793 -1535 0 0 0
0.2926 -0.0819 0.7660 -1541 0 0 0
0.2936 -0.0806 0.7525 -1519 0 0 0
0.2949 -0.0799 0.7388 -1507 0 0 0
0.3129 -0.0806 0.7378 -1762 0 0 0
0.3124 -0.0814 0.7518 -1628 0 0 0
0.3119 -0.0821 0.7655 -1574 0 0 0
0.3096 -0.0839 0.7790 -1503 0 0 0
0.3096 -0.0841 0.7933 -1548 0 0 0
0.3346 -0.0789 0.7345 -1917 0 0 0
0.3289 -0.0844 0.7890 -1557 0 0 0
0.3311 -0.0826 0.7758 -1575 0 0 0
0.3316 -0.0819 0.7620 -1847 0 0 0
0.3334 -0.0799 0.7488 -1932 0 0 0
0.2314 -0.0856 0.7948 -1518 0 0 0
0.2504 -0.0856 0.7993 -1500 0 0 0
0.2289 -0.0884 0.8083 -1467 0 0 0
0.2289 -0.0881 0.8223 -1461 0 0 0
0.2276 -0.0896 0.8353 -1485 0 0 0
0.2264 -0.0909 0.8490 -1264 0 0 0
0.2436 -0.0926 0.8540 -1451 0 0 0
0.2459 -0.0901 0.8403 -1487 0 0 0
0.2471 -0.0891 0.8263 -1468 0 0 0
0.2481 -0.0879 0.8128 -1408 0 0 0
0.2704 -0.0849 0.7988 -1415 0 0 0
0.2691 -0.0864 0.8128 -1399 0 0 0
0.2664 -0.0886 0.8260 -1539 0 0 0
0.2651 -0.0904 0.8393 -1619 0 0 0
0.2634 -0.0919 0.8530 -1557 0 0 0
0.2236 -0.0934 0.8630 -1358 0 0 0
0.2229 -0.0946 0.8775 -1313 0 0 0
0.2224 -0.0949 0.8915 -1312 0 0 0
0.2211 -0.0966 0.9053 -1330 0 0 0
0.2206 -0.0969 0.9190 -1323 0 0 0
0.2394 -0.0966 0.9093 -1369 0 0 0
0.2406 -0.0956 0.8958 -1318 0 0 0
0.2411 -0.0951 0.8825 -1403 0 0 0
0.2419 -0.0941 0.8685 -1370 0 0 0
0.2634 -0.0916 0.8680 -1588 0 0 0
0.2624 -0.0929 0.8823 -1292 0 0 0
0.2609 -0.0946 0.8960 -1305 0 0 0
0.2586 -0.0969 0.9098 -1352 0 0 0
0.2774 -0.0971 0.9173 -1249 0 0 0
0.2789 -0.0954 0.9038 -1229 0 0 0
0.2826 -0.0921 0.8475 -1530 0 0 0
0.2841 -0.0909 0.8333 -1625 0 0 0
0.2874 -0.0871 0.8203 -1611 0 0 0
0.2889 -0.0859 0.8068 -1504 0 0 0
0.3079 -0.0861 0.8073 -1544 0 0 0
0.3054 -0.0884 0.8210 -1628 0 0 0
0.3039 -0.0899 0.8343 -1616 0 0 0
0.3014 -0.0924 0.8478 -1592 0 0 0
0.3229 -0.0906 0.8443 -1592 0 0 0
0.3249 -0.0886 0.8305 -1556 0 0 0
0.3259 -0.0874 0.8168 -1512 0 0 0
0.3271 -0.0861 0.8030 -1493 0 0 0
0.3429 -0.0901 0.8413 -1383 0 0 0
0.3424 -0.0909 0.8555 -1367 0 0 0
0.2826 -0.0921 0.8623 -1596 0 0 0
0.3026 -0.0909 0.8625 -1558 0 0 0
0.2806 -0.0941 0.8903 -1238 0 0 0
0.2824 -0.0924 0.8768 -1511 0 0 0
0.3021 -0.0914 0.8773 -1531 0 0 0
0.2996 -0.0941 0.8910 -1281 0 0 0
0.2979 -0.0956 0.9050 -1351 0 0 0
0.2961 -0.0976 0.9190 -1310 0 0 0
0.3159 -0.0971 0.9145 -1516 0 0 0
0.3181 -0.0949 0.9010 -1470 0 0 0
0.3216 -0.0914 0.8590 -1576 0 0 0
0.3199 -0.0936 0.8878 -1491 0 0 0
0.3211 -0.0919 0.8738 -1462 0 0 0
0.3416 -0.0911 0.8703 -1358 0 0 0
0.3401 -0.0926 0.8845 -1335 0 0 0
0.3384 -0.0944 0.8985 -1363 0 0 0
0.3359 -0.0969 0.9125 -1295 0 0 0
0.3996 -0.0734 0.6683 -1471 0 0 0
0.3581 -0.0751 0.6750 -1703 0 0 0
0.3574 -0.0759 0.6890 -1613 0 0 0
0.3569 -0.0764 0.7028 -1790 0 0 0
0.3771 -0.0764 0.7038 -1861 0 0 0
0.3776 -0.0756 0.6900 -1863 0 0 0
0.3789 -0.0744 0.6763 -1799 0 0 0
0.3604 -0.0731 0.7170 -1768 0 0 0
0.3754 -0.0779 0.7175 -1735 0 0 0
0.3984 -0.0749 0.6825 -1753 0 0 0
0.3961 -0.0769 0.6963 -1911 0 0 0
0.3956 -0.0771 0.7100 -1830 0 0 0
0.3949 -0.0781 0.7240 -1564 0 0 0
0.3556 -0.0776 0.7305 -1837 0 0 0
0.3744 -0.0791 0.7318 -1591 0 0 0
0.3516 -0.0814 0.7443 -1848 0 0 0
0.3509 -0.0821 0.7583 -1904 0 0 0
0.3509 -0.0824 0.7720 -1628 0 0 0
0.3491 -0.0844 0.7858 -1468 0 0 0
0.3691 -0.0844 0.7868 -1492 0 0 0
0.3699 -0.0834 0.7730 -1612 0 0 0
0.3714 -0.0821 0.7598 -1855 0 0 0
0.3729 -0.0804 0.7458 -1734 0 0 0
0.3931 -0.0801 0.7383 -1714 0 0 0
0.3924 -0.0809 0.7525 -1810 0 0 0
0.3909 -0.0821 0.7663 -1605 0 0 0
0.3889 -0.0841 0.7798 -1526 0 0 0
0.4164 -0.0769 0.7040 -1782 0 0 0
0.4174 -0.0759 0.6903 -1878 0 0 0
0.4194 -0.0736 0.6765 -1629 0 0 0
0.4389 -0.0746 0.6755 -1624 0 0 0
0.4376 -0.0764 0.6898 -1868 0 0 0
0.4364 -0.0774 0.7035 -1685 0 0 0
0.4146 -0.0786 0.7178 -1838 0 0 0
0.4354 -0.0781 0.7173 -1661 0 0 0
0.4566 -0.0774 0.7048 -1765 0 0 0
0.4591 -0.0751 0.6910 -1826 0 0 0
0.4599 -0.0741 0.6770 -1576 0 0 0
0.4561 -0.0781 0.7188 -1647 0 0 0
0.4146 -0.0786 0.7323 -1903 0 0 0
0.4346 -0.0791 0.7318 -1901 0 0 0
0.4091 -0.0841 0.7878 -1400 0 0 0
0.4099 -0.0834 0.7740 -1602 0 0 0
0.4111 -0.0819 0.7605 -1643 0 0 0
0.4129 -0.0806 0.7465 -1839 0 0 0
0.4324 -0.0811 0.7458 -1805 0 0 0
0.4321 -0.0816 0.7600 -1470 0 0 0
0.4304 -0.0834 0.7738 -1518 0 0 0
0.4289 -0.0846 0.7880 -1397 0 0 0
0.4544 -0.0799 0.7330 -1776 0 0 0
0.4491 -0.0846 0.7893 -1491 0 0 0
0.4499 -0.0839 0.7750 -1669 0 0 0
0.4516 -0.0821 0.7615 -1785 0 0 0
0.4526 -0.0816 0.7473 -1828 0 0 0
0.4704 -0.0839 0.7808 -1837 0 0 0
0.3479 -0.0856 0.8000 -1426 0 0 0
0.3466 -0.0869 0.8143 -1386 0 0 0
0.3449 -0.0886 0.8278 -1402 0 0 0
0.3616 -0.0914 0.8565 -1435 0 0 0
0.3631 -0.0901 0.8420 -1535 0 0 0
0.3646 -0.0886 0.8283 -1432 0 0 0
0.3661 -0.0874 0.8145 -1493 0 0 0
0.3674 -0.0861 0.8010 -1517 0 0 0
0.3819 -0.0909 0.8498 -1473 0 0 0
0.3879 -0.0849 0.7943 -1506 0 0 0
0.3861 -0.0869 0.8083 -1492 0 0 0
0.3844 -0.0884 0.8223 -1406 0 0 0
0.3831 -0.0896 0.8358 -1441 0 0 0
0.4031 -0.0899 0.8435 -1409 0 0 0
0.4039 -0.0889 0.8293 -1321 0 0 0
0.4061 -0.0871 0.8158 -1396 0 0 0
0.3566 -0.0964 0.9130 -1315 0 0 0
0.3579 -0.0949 0.8993 -1357 0 0 0
0.3596 -0.0934 0.8858 -1401 0 0 0
0.3616 -0.0914 0.8718 -1307 0 0 0
0.3819 -0.0906 0.8648 -1344 0 0 0
0.3796 -0.0926 0.8788 -1387 0 0 0
0.3776 -0.0949 0.8930 -1523 0 0 0
0.3761 -0.0961 0.9073 -1259 0 0 0
0.4014 -0.0911 0.8580 -1382 0 0 0
0.3954 -0.0974 0.9145 -1393 0 0 0
0.3966 -0.0959 0.9008 -1419 0 0 0
0.3991 -0.0934 0.8873 -1391 0 0 0
0.4001 -0.0924 0.8728 -1432 0 0 0
0.4679 -0.0859 0.7950 -1641 0 0 0
0.4074 -0.0861 0.8020 -1483 0 0 0
0.4269 -0.0864 0.8025 -1413 0 0 0
0.4259 -0.0874 0.8165 -1388 0 0 0
0.4241 -0.0891 0.8303 -1372 0 0 0
0.4229 -0.0901 0.8443 -1437 0 0 0
0.4421 -0.0909 0.8448 -1326 0 0 0
0.4444 -0.0891 0.8308 -1370 0 0 0
0.4461 -0.0874 0.8173 -1422 0 0 0
0.4474 -0.0864 0.8035 -1578 0 0 0
0.4666 -0.0871 0.8095 -1410 0 0 0
0.4656 -0.0884 0.8238 -1401 0 0 0
0.4644 -0.0899 0.8373 -1369 0 0 0
0.4626 -0.0911 0.8515 -1459 0 0 0
0.4216 -0.0914 0.8585 -1405 0 0 0
0.4419 -0.0914 0.8598 -1434 0 0 0
0.4206 -0.0921 0.8730 -1349 0 0 0
0.4186 -0.0944 0.8873 -1303 0 0 0
0.4169 -0.0959 0.9015 -1379 0 0 0
0.4146 -0.0976 0.9158 -1249 0 0 0
0.4351 -0.0976 0.9168 -1306 0 0 0
0.4369 -0.0961 0.9028 -1324 0 0 0
0.4386 -0.0944 0.8890 -1324 0 0 0
0.4404 -0.0926 0.8745 -1461 0 0 0
0.4616 -0.0916 0.8663 -1464 0 0 0
0.4596 -0.0939 0.8805 -1372 0 0 0
0.4581 -0.0951 0.8948 -1280 0 0 0
0.4561 -0.0971 0.9093 -1358 0 0 0
0.2266 -0.1296 1.1583 -1532 0 0 0
0.2254 -0.1311 1.1723 -1660 0 0 0
0.2446 -0.1306 1.1648 -1666 0 0 0
0.2639 -0.1304 1.1545 -1603 0 0 0
0.2629 -0.1314 1.1688 -1565 0 0 0
0.2826 -0.1311 1.1630 -1586 0 0 0
0.3019 -0.1314 1.1638 -1527 0 0 0
0.3224 -0.1304 1.1628 -1503 0 0 0
0.3399 -0.1324 1.1743 -1483 0 0 0
0.3614 -0.1306 1.1660 -1525 0 0 0
0.3801 -0.1319 1.1705 -1496 0 0 0
0.3996 -0.1324 1.1693 -1589 0 0 0
0.4216 -0.1306 1.1658 -1381 0 0 0
0.4396 -0.1324 1.1735 -1595 0 0 0
0.4634 -0.1299 1.1658 -1601 0 0 0
0.2389 -0.0976 0.9235 -1238 0 0 0
0.2569 -0.0981 0.9238 -1364 0 0 0
0.2189 -0.0984 0.9330 -1369 0 0 0
0.2301 -0.1061 0.9770 -1440 0 0 0
0.2311 -0.1049 0.9633 -1587 0 0 0
0.2359 -0.1004 0.9513 -1356 0 0 0
0.2376 -0.0986 0.9375 -1250 0 0 0
0.2526 -0.1021 0.9510 -1381 0 0 0
0.2509 -0.1041 0.9638 -1525 0 0 0
0.2486 -0.1061 0.9775 -1535 0 0 0
0.2561 -0.0989 0.9378 -1377 0 0 0
0.2681 -0.1064 0.9713 -1477 0 0 0
0.2694 -0.1049 0.9578 -1385 0 0 0
0.2746 -0.0996 0.9455 -1249 0 0 0
0.2756 -0.0984 0.9315 -1252 0 0 0
0.2289 -0.1076 0.9908 -1501 0 0 0
0.2211 -0.1154 1.0435 -1619 0 0 0
0.2224 -0.1141 1.0303 -1621 0 0 0
0.2236 -0.1129 1.0170 -1603 0 0 0
0.2271 -0.1094 1.0045 -1550 0 0 0
0.2471 -0.1084 0.9918 -1564 0 0 0
0.2454 -0.1099 1.0055 -1509 0 0 0
0.2429 -0.1126 1.0188 -1469 0 0 0
0.2419 -0.1134 1.0328 -1526 0 0 0
0.2399 -0.1156 1.0463 -1526 0 0 0
0.2651 -0.1094 0.9850 -1412 0 0 0
0.2594 -0.1151 1.0388 -1489 0 0 0
0.2616 -0.1131 1.0255 -1489 0 0 0
0.2624 -0.1121 1.0125 -1499 0 0 0
0.2639 -0.1106 0.9988 -1516 0 0 0
0.2799 -0.1136 1.0285 -1643 0 0 0
0.2781 -0.1156 1.0423 -1651 0 0 0
0.3346 -0.0979 0.9268 -1350 0 0 0
0.2944 -0.0989 0.9333 -1312 0 0 0
0.2936 -0.0999 0.9470 -1395 0 0 0
0.2909 -0.1024 0.9595 -1463 0 0 0
0.2871 -0.1069 0.9728 -1478 0 0 0
0.3049 -0.1081 0.9825 -1494 0 0 0
0.3071 -0.1061 0.9688 -1412 0 0 0
0.3101 -0.1029 0.9555 -1464 0 0 0
0.3129 -0.0999 0.9425 -1393 0 0 0
0.3141 -0.0986 0.9288 -1492 0 0 0
0.3329 -0.0996 0.9408 -1206 0 0 0
0.3299 -0.1026 0.9538 -1275 0 0 0
0.3271 -0.1056 0.9670 -1490 0 0 0
0.3246 -0.1079 0.9808 -1522 0 0 0
0.2849 -0.1091 0.9868 -1488 0 0 0
0.2831 -0.1106 1.0010 -1545 0 0 0
0.2819 -0.1119 1.0150 -1588 0 0 0
0.2979 -0.1151 1.0368 -1616 0 0 0
0.2996 -0.1134 1.0233 -1608 0 0 0
0.3014 -0.1116 1.0103 -1491 0 0 0
0.3036 -0.1094 0.9968 -1523 0 0 0
0.3176 -0.1146 1.0368 -1617 0 0 0
0.3224 -0.1101 0.9950 -1573 0 0 0
0.3211 -0.1111 1.0093 -1436 0 0 0
0.3194 -0.1131 1.0228 -1585 0 0 0
0.3376 -0.1146 1.0363 -1544 0 0 0
0.3406 -0.1119 1.0230 -1481 0 0 0
0.3416 -0.1106 1.0098 -1281 0 0 0
0.3429 -0.1094 0.9958 -1580 0 0 0
0.2336 -0.1226 1.1018 -1590 0 0 0
0.2181 -0.1191 1.0710 -1520 0 0 0
0.2199 -0.1171 1.0573 -1546 0 0 0
0.2384 -0.1169 1.0608 -1528 0 0 0
0.2366 -0.1189 1.0745 -1569 0 0 0
0.2349 -0.1209 1.0878 -1576 0 0 0
0.2529 -0.1214 1.1083 -1374 0 0 0
0.2534 -0.1214 1.0935 -1409 0 0 0
0.2544 -0.1199 1.0795 -1507 0 0 0
0.2581 -0.1164 1.0525 -1435 0 0 0
0.2569 -0.1179 1.0663 -1481 0 0 0
0.2764 -0.1171 1.0565 -1622 0 0 0
0.2751 -0.1189 1.0705 -1645 0 0 0
0.2739 -0.1199 1.0843 -1651 0 0 0
0.2716 -0.1221 1.0978 -1643 0 0 0
0.2316 -0.1244 1.1163 -1647 0 0 0
0.2299 -0.1259 1.1308 -1628 0 0 0
0.2284 -0.1276 1.1445 -1699 0 0 0
0.2471 -0.1279 1.1508 -1659 0 0 0
0.2486 -0.1261 1.1370 -1677 0 0 0
0.2504 -0.1246 1.1228 -1574 0 0 0
0.2699 -0.1239 1.1123 -1632 0 0 0
0.2681 -0.1261 1.1268 -1408 0 0 0
0.2659 -0.1279 1.1410 -1573 0 0 0
0.2901 -0.1234 1.1055 -1616 0 0 0
0.3101 -0.1229 1.1070 -1496 0 0 0
0.3289 -0.1236 1.1050 -1428 0 0 0
0.2961 -0.1169 1.0505 -1552 0 0 0
0.3146 -0.1176 1.0505 -1551 0 0 0
0.3364 -0.1161 1.0500 -1545 0 0 0
0.2919 -0.1214 1.0913 -1544 0 0 0
0.2931 -0.1201 1.0778 -1561 0 0 0
0.2949 -0.1184 1.0640 -1588 0 0 0
0.3134 -0.1189 1.0648 -1536 0 0 0
0.3124 -0.1196 1.0790 -1493 0 0 0
0.3106 -0.1219 1.0925 -1511 0 0 0
0.3306 -0.1216 1.0908 -1422 0 0 0
0.3319 -0.1204 1.0773 -1441 0 0 0
0.3341 -0.1181 1.0638 -1525 0 0 0
0.2849 -0.1289 1.1490 -1661 0 0 0
0.2871 -0.1266 1.1350 -1601 0 0 0
0.2879 -0.1256 1.1203 -1622 0 0 0
0.3071 -0.1256 1.1213 -1545 0 0 0
0.3061 -0.1269 1.1358 -1635 0 0 0
0.3036 -0.1289 1.1498 -1654 0 0 0
0.3246 -0.1281 1.1488 -1575 0 0 0
0.3254 -0.1271 1.1345 -1581 0 0 0
0.3271 -0.1254 1.1198 -1520 0 0 0
0.3551 -0.0976 0.9273 -1343 0 0 0
0.3746 -0.0976 0.9218 -1291 0 0 0
0.3449 -0.1076 0.9815 -1479 0 0 0
0.3479 -0.1049 0.9678 -1422 0 0 0
0.3479 -0.1049 0.9538 -1460 0 0 0
0.3534 -0.0994 0.9413 -1295 0 0 0
0.3729 -0.0994 0.9360 -1263 0 0 0
0.3714 -0.1006 0.9498 -1401 0 0 0
0.3669 -0.1054 0.9620 -1483 0 0 0
0.3646 -0.1074 0.9760 -1482 0 0 0
0.3841 -0.1079 0.9835 -1505 0 0 0
0.3859 -0.1059 0.9698 -1475 0 0 0
0.3879 -0.1041 0.9560 -1467 0 0 0
0.3924 -0.0996 0.9430 -1426 0 0 0
0.3941 -0.0981 0.9290 -1539 0 0 0
0.3634 -0.1086 0.9903 -1494 0 0 0
0.3621 -0.1099 1.0048 -1422 0 0 0
0.3596 -0.1124 1.0185 -1499 0 0 0
0.3579 -0.1144 1.0323 -1467 0 0 0
0.3561 -0.1159 1.0463 -1403 0 0 0
0.3766 -0.1149 1.0388 -1473 0 0 0
0.3776 -0.1139 1.0248 -1505 0 0 0
0.3819 -0.1099 1.0123 -1483 0 0 0
0.4036 -0.1089 0.9853 -1453 0 0 0
0.3826 -0.1091 0.9983 -1458 0 0 0
0.4024 -0.1096 1.0000 -1488 0 0 0
0.4001 -0.1121 1.0140 -1520 0 0 0
0.3971 -0.1149 1.0273 -1508 0 0 0
0.3961 -0.1159 1.0418 -1475 0 0 0
0.4544 -0.0984 0.9240 -1364 0 0 0
0.4139 -0.0989 0.9308 -1254 0 0 0
0.4116 -0.1011 0.9448 -1268 0 0 0
0.4086 -0.1041 0.9578 -1455 0 0 0
0.4076 -0.1049 0.9718 -1324 0 0 0
0.4259 -0.1066 0.9720 -1496 0 0 0
0.4276 -0.1049 0.9583 -1618 0 0 0
0.4324 -0.1004 0.9453 -1239 0 0 0
0.4334 -0.0996 0.9310 -1289 0 0 0
0.4451 -0.1071 0.9795 -1604 0 0 0
0.4531 -0.0999 0.9388 -1303 0 0 0
0.4504 -0.1021 0.9525 -1547 0 0 0
0.4466 -0.1061 0.9653 -1665 0 0 0
0.4661 -0.1069 0.9750 -1712 0 0 0
0.4679 -0.1054 0.9608 -1682 0 0 0
0.4239 -0.1086 0.9863 -1511 0 0 0
0.4169 -0.1154 1.0418 -1541 0 0 0
0.4181 -0.1139 1.0280 -1567 0 0 0
0.4204 -0.1121 1.0145 -1576 0 0 0
0.4221 -0.1101 1.0008 -1452 0 0 0
0.4426 -0.1094 0.9940 -1510 0 0 0
0.4401 -0.1119 1.0080 -1615 0 0 0
0.4389 -0.1134 1.0223 -1610 0 0 0
0.4369 -0.1151 1.0363 -1578 0 0 0
0.4644 -0.1089 0.9895 -1642 0 0 0
0.4574 -0.1154 1.0453 -1552 0 0 0
0.4581 -0.1144 1.0313 -1600 0 0 0
0.4609 -0.1121 1.0175 -1610 0 0 0
0.4621 -0.1109 1.0038 -1632 0 0 0
0.3484 -0.1236 1.1023 -1408 0 0 0
0.3686 -0.1234 1.1080 -1424 0 0 0
0.3751 -0.1169 1.0525 -1437 0 0 0
0.3516 -0.1199 1.0748 -1416 0 0 0
0.3509 -0.1209 1.0885 -1396 0 0 0
0.3539 -0.1181 1.0608 -1487 0 0 0
0.3696 -0.1219 1.0935 -1392 0 0 0
0.3714 -0.1206 1.0795 -1450 0 0 0
0.3731 -0.1184 1.0663 -1412 0 0 0
0.3949 -0.1169 1.0565 -1501 0 0 0
0.3926 -0.1191 1.0705 -1432 0 0 0
0.3914 -0.1206 1.0845 -1403 0 0 0
0.3901 -0.1214 1.0988 -1453 0 0 0
0.3474 -0.1246 1.1170 -1414 0 0 0
0.3451 -0.1269 1.1315 -1597 0 0 0
0.3439 -0.1284 1.1458 -1584 0 0 0
0.3444 -0.1276 1.1610 -1347 0 0 0
0.3631 -0.1286 1.1515 -1459 0 0 0
0.3649 -0.1269 1.1375 -1570 0 0 0
0.3669 -0.1249 1.1230 -1511 0 0 0
0.3874 -0.1246 1.1128 -1469 0 0 0
0.3859 -0.1259 1.1275 -1591 0 0 0
0.3844 -0.1274 1.1423 -1508 0 0 0
0.3831 -0.1286 1.1565 -1496 0 0 0
0.4031 -0.1291 1.1550 -1544 0 0 0
0.4049 -0.1274 1.1410 -1575 0 0 0
0.4086 -0.1239 1.1110 -1442 0 0 0
0.4286 -0.1236 1.1073 -1456 0 0 0
0.4499 -0.1226 1.1008 -1423 0 0 0
0.4704 -0.1231 1.1070 -1535 0 0 0
0.4364 -0.1159 1.0510 -1540 0 0 0
0.4104 -0.1216 1.0970 -1433 0 0 0
0.4116 -0.1206 1.0830 -1416 0 0 0
0.4139 -0.1186 1.0695 -1467 0 0 0
0.4151 -0.1169 1.0560 -1513 0 0 0
0.4339 -0.1184 1.0653 -1527 0 0 0
0.4316 -0.1204 1.0793 -1521 0 0 0
0.4304 -0.1214 1.0933 -1420 0 0 0
0.4521 -0.1206 1.0868 -1506 0 0 0
0.4534 -0.1189 1.0733 -1545 0 0 0
0.4556 -0.1169 1.0598 -1565 0 0 0
0.4074 -0.1251 1.1263 -1512 0 0 0
0.4269 -0.1251 1.1223 -1538 0 0 0
0.4256 -0.1266 1.1370 -1551 0 0 0
0.4239 -0.1281 1.1513 -1530 0 0 0
0.4431 -0.1286 1.1595 -1333 0 0 0
0.4449 -0.1274 1.1448 -1586 0 0 0
0.4491 -0.1236 1.1155 -1503 0 0 0
0.4461 -0.1261 1.1300 -1614 0 0 0
0.4691 -0.1241 1.1223 -1521 0 0 0
0.4674 -0.1259 1.1368 -1562 0 0 0
0.4649 -0.1281 1.1508 -1524 0 0 0
0.4806 -0.0739 0.6673 -1499 0 0 0
0.4794 -0.0751 0.6818 -1603 0 0 0
0.4781 -0.0764 0.6960 -1748 0 0 0
0.4966 -0.0784 0.7055 -1474 0 0 0
0.4994 -0.0759 0.6920 -1570 0 0 0
0.5001 -0.0751 0.6778 -1583 0 0 0
0.4754 -0.0789 0.7095 -1721 0 0 0
0.4764 -0.0784 0.7238 -1732 0 0 0
0.4984 -0.0769 0.7203 -1641 0 0 0
0.5209 -0.0754 0.6785 -1602 0 0 0
0.5199 -0.0761 0.6930 -1621 0 0 0
0.5181 -0.0779 0.7065 -1511 0 0 0
0.5174 -0.0786 0.7210 -1553 0 0 0
0.4954 -0.0796 0.7345 -1755 0 0 0
0.4746 -0.0801 0.7385 -1717 0 0 0
0.4719 -0.0824 0.7525 -1760 0 0 0
0.4716 -0.0826 0.7665 -1815 0 0 0
0.4894 -0.0851 0.7908 -1795 0 0 0
0.4896 -0.0849 0.7765 -1873 0 0 0
0.4924 -0.0826 0.7628 -1863 0 0 0
0.4936 -0.0816 0.7488 -1824 0 0 0
0.5159 -0.0799 0.7353 -1614 0 0 0
0.5151 -0.0809 0.7500 -1686 0 0 0
0.5134 -0.0826 0.7640 -1692 0 0 0
0.5121 -0.0836 0.7780 -1610 0 0 0
0.5104 -0.0854 0.7923 -1529 0 0 0
0.5329 -0.0839 0.7800 -1553 0 0 0
0.5406 -0.0769 0.6945 -1549 0 0 0
0.5419 -0.0754 0.6803 -1527 0 0 0
0.5631 -0.0754 0.6790 -1548 0 0 0
0.5619 -0.0764 0.6938 -1599 0 0 0
0.5401 -0.0774 0.7230 -1442 0 0 0
0.5406 -0.0766 0.7085 -1426 0 0 0
0.5619 -0.0766 0.7078 -1501 0 0 0
0.5601 -0.0781 0.7220 -1511 0 0 0
0.5829 -0.0769 0.6950 -1603 0 0 0
0.5841 -0.0756 0.6808 -1568 0 0 0
0.5806 -0.0786 0.7235 -1585 0 0 0
0.5816 -0.0776 0.7090 -1512 0 0 0
0.5584 -0.0796 0.7365 -1575 0 0 0
0.5344 -0.0826 0.7660 -1494 0 0 0
0.5359 -0.0814 0.7520 -1574 0 0 0
0.5379 -0.0794 0.7378 -1611 0 0 0
0.5566 -0.0816 0.7510 -1543 0 0 0
0.5554 -0.0826 0.7653 -1557 0 0 0
0.5544 -0.0834 0.7795 -1566 0 0 0
0.5749 -0.0839 0.7813 -1586 0 0 0
0.5764 -0.0826 0.7670 -1599 0 0 0
0.5771 -0.0819 0.7528 -1618 0 0 0
0.5794 -0.0801 0.7385 -1612 0 0 0
0.5964 -0.0841 0.7755 -1586 0 0 0
0.5954 -0.0849 0.7903 -1580 0 0 0
0.4836 -0.0909 0.8470 -1457 0 0 0
0.4854 -0.0894 0.8328 -1423 0 0 0
0.4864 -0.0881 0.8193 -1413 0 0 0
0.4876 -0.0869 0.8053 -1548 0 0 0
0.5086 -0.0866 0.8073 -1511 0 0 0
0.5076 -0.0876 0.8215 -1439 0 0 0
0.5056 -0.0894 0.8353 -1519 0 0 0
0.5051 -0.0904 0.8495 -1584 0 0 0
0.5316 -0.0849 0.7945 -1548 0 0 0
0.5256 -0.0906 0.8508 -1543 0 0 0
0.5269 -0.0894 0.8363 -1543 0 0 0
0.5289 -0.0876 0.8228 -1466 0 0 0
0.5299 -0.0866 0.8088 -1526 0 0 0
0.4831 -0.0909 0.8620 -1507 0 0 0
0.4759 -0.0979 0.9193 -1360 0 0 0
0.4776 -0.0964 0.9053 -1370 0 0 0
0.4789 -0.0951 0.8910 -1321 0 0 0
0.4806 -0.0934 0.8768 -1501 0 0 0
0.5044 -0.0906 0.8645 -1389 0 0 0
0.5014 -0.0934 0.8785 -1407 0 0 0
0.5001 -0.0951 0.8928 -1447 0 0 0
0.4971 -0.0974 0.9070 -1379 0 0 0
0.5191 -0.0964 0.9095 -1534 0 0 0
0.5206 -0.0951 0.8950 -1541 0 0 0
0.5221 -0.0936 0.8805 -1429 0 0 0
0.5251 -0.0911 0.8660 -1458 0 0 0
0.5521 -0.0854 0.7940 -1537 0 0 0
0.5734 -0.0856 0.7958 -1587 0 0 0
0.5506 -0.0866 0.8088 -1519 0 0 0
0.5496 -0.0876 0.8233 -1473 0 0 0
0.5479 -0.0894 0.8370 -1501 0 0 0
0.5466 -0.0906 0.8515 -1505 0 0 0
0.5669 -0.0909 0.8523 -1618 0 0 0
0.5689 -0.0896 0.8380 -1570 0 0 0
0.5701 -0.0881 0.8243 -1571 0 0 0
0.5724 -0.0861 0.8103 -1566 0 0 0
0.5936 -0.0864 0.8053 -1527 0 0 0
0.5924 -0.0876 0.8198 -1511 0 0 0
0.5906 -0.0894 0.8338 -1549 0 0 0
0.5894 -0.0904 0.8483 -1596 0 0 0
0.5461 -0.0911 0.8665 -1429 0 0 0
0.5431 -0.0936 0.8805 -1421 0 0 0
0.5414 -0.0956 0.8948 -1436 0 0 0
0.5396 -0.0974 0.9093 -1382 0 0 0
0.5604 -0.0974 0.9113 -1553 0 0 0
0.5626 -0.0954 0.8965 -1610 0 0 0
0.5644 -0.0936 0.8823 -1558 0 0 0
0.5664 -0.0916 0.8675 -1591 0 0 0
0.5881 -0.0911 0.8630 -1523 0 0 0
0.5864 -0.0929 0.8775 -1531 0 0 0
0.5846 -0.0946 0.8920 -1555 0 0 0
0.5824 -0.0964 0.9063 -1540 0 0 0
0.6286 -0.0741 0.6673 -1513 0 0 0
0.6056 -0.0751 0.6745 -1521 0 0 0
0.6049 -0.0764 0.6893 -1582 0 0 0
0.6034 -0.0774 0.7038 -1590 0 0 0
0.6251 -0.0774 0.6965 -1494 0 0 0
0.6274 -0.0751 0.6820 -1547 0 0 0
0.6026 -0.0781 0.7180 -1466 0 0 0
0.6239 -0.0784 0.7253 -1478 0 0 0
0.6264 -0.0759 0.7108 -1438 0 0 0
0.6484 -0.0754 0.6815 -1565 0 0 0
0.6471 -0.0766 0.6963 -1523 0 0 0
0.6461 -0.0774 0.7105 -1463 0 0 0
0.6444 -0.0789 0.7250 -1578 0 0 0
0.6014 -0.0794 0.7325 -1620 0 0 0
0.5996 -0.0809 0.7473 -1619 0 0 0
0.5984 -0.0821 0.7618 -1620 0 0 0
0.6169 -0.0846 0.7830 -1608 0 0 0
0.6186 -0.0829 0.7688 -1629 0 0 0
0.6199 -0.0819 0.7548 -1619 0 0 0
0.6216 -0.0801 0.7403 -1641 0 0 0
0.6436 -0.0801 0.7400 -1628 0 0 0
0.6419 -0.0814 0.7545 -1641 0 0 0
0.6396 -0.0834 0.7688 -1601 0 0 0
0.6389 -0.0841 0.7833 -1585 0 0 0
0.6604 -0.0844 0.7878 -1560 0 0 0
0.6721 -0.0741 0.6710 -920 0 0 0
0.6929 -0.0751 0.6715 -1796 0 0 0
0.7149 -0.0754 0.6715 -1718 0 0 0
0.6689 -0.0769 0.7000 -869 0 0 0
0.6706 -0.0754 0.6858 -919 0 0 0
0.6911 -0.0766 0.6865 -1839 0 0 0
0.6889 -0.0784 0.7013 -1786 0 0 0
0.6664 -0.0796 0.7290 -1574 0 0 0
0.6681 -0.0779 0.7145 -1001 0 0 0
0.6894 -0.0781 0.7160 -1719 0 0 0
0.7126 -0.0774 0.7010 -1494 0 0 0
0.7139 -0.0761 0.6868 -1536 0 0 0
0.7131 -0.0769 0.7160 -1736 0 0 0
0.6876 -0.0799 0.7308 -1558 0 0 0
0.6621 -0.0831 0.7730 -1601 0 0 0
0.6634 -0.0821 0.7590 -1588 0 0 0
0.6651 -0.0804 0.7443 -1605 0 0 0
0.6859 -0.0811 0.7455 -1622 0 0 0
0.6851 -0.0821 0.7603 -1622 0 0 0
0.6834 -0.0834 0.7743 -1599 0 0 0
0.6821 -0.0849 0.7890 -1601 0 0 0
0.7104 -0.0791 0.7308 -1730 0 0 0
0.7044 -0.0844 0.7893 -1613 0 0 0
0.7056 -0.0836 0.7745 -1637 0 0 0
0.7066 -0.0824 0.7603 -1646 0 0 0
0.7079 -0.0816 0.7455 -1701 0 0 0
0.6161 -0.0854 0.7978 -1593 0 0 0
0.6096 -0.0911 0.8548 -1573 0 0 0
0.6109 -0.0901 0.8403 -1567 0 0 0
0.6131 -0.0881 0.8263 -1486 0 0 0
0.6144 -0.0869 0.8125 -1488 0 0 0
0.6359 -0.0866 0.8130 -1563 0 0 0
0.6341 -0.0884 0.8273 -1541 0 0 0
0.6326 -0.0894 0.8418 -1530 0 0 0
0.6306 -0.0909 0.8563 -1527 0 0 0
